# .PCD v0.7 - Point Cloud Data file format
VERSION 0.7
FIELDS x y z rgba
SIZE 4 4 4 4
TYPE F F F U
COUNT 1 1 1 1
WIDTH 1162
HEIGHT 1
VIEWPOINT 0 0 0 1 0 0 0
POINTS 1162
DATA ascii
-0.87733537 -0.49209568 2.7480879 6973282
-0.85948259 -0.49119529 2.7406189 6776417
-0.81304061 -0.49234119 2.7404525 6842464
-0.79834235 -0.49319112 2.7430909 7039073
-0.76713455 -0.49383911 2.7423053 6841696
-0.73592675 -0.49448711 2.7415197 6973278
-0.72032285 -0.49481112 2.7411268 6974050
-0.68911505 -0.49545911 2.7403412 7039075
0.060539551 -0.49936745 2.7443252 8684668
-1.2905083 -0.48024803 2.7404392 6579292
-1.275461 -0.48074213 2.7410631 6776671
-1.2457923 -0.48190287 2.7433248 6710876
-1.215158 -0.48272055 2.7435563 6776669
-1.2009405 -0.4835605 2.7462068 6645342
-1.1858139 -0.48405614 2.7468286 6711135
-1.169812 -0.48420686 2.7454231 6776669
-1.1538215 -0.4843573 2.7440178 6776671
-1.139104 -0.48502603 2.7456527 6776669
-1.1231191 -0.48517638 2.7442477 6908255
-1.1075548 -0.48549956 2.7438557 6908257
-1.0940089 -0.4866887 2.7485285 6973278
-1.0776204 -0.48666584 2.7461107 6908003
-1.0612543 -0.48664254 2.7436929 7039073
-1.0472312 -0.48765999 2.7473509 7039073
-1.0301144 -0.48728913 2.742909 6974050
-1.0152953 -0.48795998 2.7445416 6842723
-0.99934417 -0.48810962 2.7431371 7105382
-0.98449677 -0.48878106 2.7447689 6974048
-0.96747619 -0.48840818 2.7403293 7170661
-0.9370417 -0.48940328 2.7415686 6974048
-0.92146617 -0.48972669 2.7411764 6908257
0.06090834 -0.48405176 2.7471159 8421494
-1.397591 -0.47747985 2.7401266 6381909
-1.3375596 -0.4794527 2.7426267 6644315
-1.3060273 -0.47992581 2.7408297 6645083
0.029713901 -0.46689498 2.7436829 10131093
0.045432612 -0.46705681 2.7422843 8618107
0.061201259 -0.46787775 2.744895 8354935
-1.4732828 -0.41334724 2.7402101 7892832
-0.05708662 -0.86171985 2.7540774 12370123
0.14774188 -0.86689335 2.7519341 12566471
0.15029135 -0.7575112 2.7564354 9013643
-1.3156825 -0.53015405 2.7597425 6644313
-0.59992182 -0.53199768 2.755558 7631212
-0.58422178 -0.53232366 2.755163 0
-1.5309998 -0.52449119 2.759145 5854019
-1.5148561 -0.52462775 2.7577355 5724234
-1.005904 -0.52240998 2.7597609 6710360
-0.97457159 -0.52306056 2.7589722 6710874
-0.95890558 -0.52338588 2.7585778 6907487
-0.84986943 -0.52603585 2.7578387 6775901
-0.80313355 -0.52719921 2.7576652 6710106
-0.78803205 -0.52789873 2.7592909 6710106
-0.77205247 -0.52803755 2.7578857 6644315
-1.4532791 -0.51061201 2.7579854 6119252
-1.4376864 -0.51093578 2.7575927 6118739
-1.4210484 -0.51089531 2.7551682 6184530
-1.4039159 -0.51067221 2.7517281 6184530
-1.3914201 -0.51208949 2.757431 6381141
-1.3763276 -0.51259577 2.758054 6184532
-1.3587233 -0.51218945 2.7535992 6316120
-1.3441309 -0.51287836 2.7552376 6447704
-1.3290272 -0.513385 2.7558603 6316118
-1.3153616 -0.5144406 2.7595279 6579290
-1.2827042 -0.51453978 2.755697 6513495
-1.2684989 -0.5154137 2.7583482 6776153
-1.2528781 -0.51573801 2.7579551 6775899
-1.2368023 -0.51587886 2.7565475 6710106
-1.114338 -0.51957953 2.7594819 6645085
-1.098689 -0.51990443 2.759088 6645085
-0.75408596 -0.51131123 2.7502058 6775901
-0.72412789 -0.51286972 2.7544661 6973282
-0.70792562 -0.51283157 2.7520523 6973282
-0.69225949 -0.51315683 2.751658 6973282
-0.64526099 -0.51413274 2.7504747 7170661
-1.5284302 -0.50808674 2.7548625 0
-1.4978526 -0.50891459 2.7550957 5986637
-1.482828 -0.5094195 2.7557204 5987406
-1.4667127 -0.50956118 2.7543118 5855565
-1.1874471 -0.5002529 2.7500842 6710106
-1.1601112 -0.50250602 2.7584219 6645085
-1.1419487 -0.50175947 2.7519474 6645083
-1.1259296 -0.50190485 2.7505412 6710878
-1.1119694 -0.50294381 2.7542012 6710874
-1.0971562 -0.50362599 2.7558341 7039325
-1.0799311 -0.50323451 2.7513888 6841692
-1.048712 -0.50388277 2.750603 6842723
-1.0350085 -0.50510365 2.7552724 6776671
-1.0178685 -0.50471044 2.7508295 6776671
-0.97138155 -0.50586295 2.7506621 6776669
-0.9258852 -0.50755674 2.7535281 7236452
-0.91057748 -0.50806183 2.7541454 6908257
-0.89393765 -0.50784564 2.7507181 6842464
-0.87830549 -0.50817019 2.7503247 6842464
-0.84766757 -0.50918084 2.751559 6776671
-0.81638062 -0.50983053 2.7507713 6973280
0.076584652 -0.50233889 2.7589622 8619134
-1.3875206 -0.49516225 2.7501068 6250323
-1.3111763 -0.49730924 2.751193 6645596
-1.2644496 -0.49827948 2.7500169 6710876
-1.2342079 -0.49928194 2.7512612 6775901
0.029090326 -0.49959379 2.7501302 9605516
0.099333316 -0.9313156 2.7600143 15002873
0.10086627 -0.87021583 2.7671764 12040897
0.14848389 -0.85375667 2.7607465 11908795
0.03810212 -0.83496016 2.7613077 11251379
0.14894849 -0.83873904 2.7635386 11382451
-0.60292041 -0.5501191 2.7678773 7433320
-0.58758712 -0.55083477 2.7694972 7631212
-0.57117277 -0.55057961 2.7660749 0
0.13905747 -0.55216604 2.7620282 8421243
-1.5503163 -0.54100215 2.7658558 7431764
-1.5358207 -0.54171193 2.7674971 6710360
-1.5213022 -0.542422 2.7691376 5658186
-0.94703585 -0.54138458 2.7685161 6710878
-0.93097144 -0.54151946 2.7671087 6710878
-0.91458201 -0.54146242 2.7646902 6710108
-0.88414514 -0.5426904 2.766933 6775901
-0.86778408 -0.54263282 2.7645152 6709597
-0.85301328 -0.54353547 2.7671523 6775901
-0.83697695 -0.54366982 2.7657454 6709849
-0.80642128 -0.54490024 2.7679853 6709595
-0.77522719 -0.54574668 2.7682033 6775642
-0.76004094 -0.54645932 2.7698267 6906974
-0.74428433 -0.54678649 2.7694302 6578524
-0.71224576 -0.54705441 2.7666175 6775642
-1.3508807 -0.53101248 2.7686527 6513497
-1.333259 -0.53058368 2.7641971 6578520
-1.3029273 -0.53161085 2.7654395 6512727
-1.2858566 -0.53136933 2.7620008 6710359
-1.2706848 -0.531883 2.7626216 6710106
-1.2416728 -0.53347874 2.7669065 6578522
-1.2116601 -0.53469789 2.76916 6644313
-1.1323855 -0.53594667 2.7651582 6578520
-1.1167082 -0.53627217 2.7647636 6775899
-1.1030509 -0.53754902 2.7694347 6710106
-1.0406094 -0.53904426 2.7688661 6776669
-1.0245222 -0.53917962 2.7674577 6645083
-1.0088165 -0.53950572 2.7670624 6776667
-0.74313915 -0.53037459 2.7661841 6906974
-0.72713143 -0.53051406 2.7647784 7039075
-0.71060985 -0.53027815 2.7613535 6776417
-0.69514966 -0.53079212 2.7619672 6973280
-0.67942691 -0.53111857 2.7615714 6973021
-0.66468638 -0.53219664 2.7652123 6973021
-0.64894104 -0.53252357 2.7648158 7039073
-0.63272721 -0.53247428 2.7624016 7170661
-0.61676461 -0.53261274 2.7609971 7302247
0.10776348 -0.53594863 2.7646122 8092537
-1.5025817 -0.52607459 2.7634447 5790027
-1.4853301 -0.52583683 2.7600014 5855565
-1.4729708 -0.52728546 2.7657084 5987151
-1.455736 -0.52704728 2.7622654 5921358
-1.4411778 -0.52774686 2.7639048 5987153
-1.4250284 -0.52788359 2.7624953 6249809
-1.410442 -0.52858382 2.7641342 6184530
-1.3937868 -0.52853227 2.7617087 6249555
-1.3812013 -0.52998561 2.76741 6315348
-1.362545 -0.529181 2.7609222 6250325
-1.084633 -0.5209682 2.7627461 6841692
-1.0681759 -0.52092397 2.7603257 6710108
-1.0540632 -0.52198887 2.7639823 6645085
-1.0402867 -0.52323979 2.7686503 6710878
-1.0215701 -0.52208471 2.7601554 6973280
-0.9906022 -0.52292067 2.7603788 6645081
-0.94428146 -0.52426839 2.7612185 6907485
-0.92894012 -0.52477992 2.7618353 6907739
-0.91325146 -0.52510566 2.7614405 6841694
-0.89789295 -0.52561754 2.7620566 6710108
-0.88317281 -0.52650213 2.7646949 6710624
-0.86650407 -0.52626932 2.7612665 6841694
-0.83573079 -0.52729422 2.7624974 6775388
-0.81972295 -0.52743369 2.7610915 6710106
-0.75804049 -0.52948624 2.7635505 6841694
-1.3002181 -0.51494801 2.7601497 6316631
-1.2234331 -0.51712126 2.7612255 6644315
-1.2082331 -0.51762986 2.7618456 6578522
-1.1947734 -0.51887417 2.7665217 6710108
-1.1786637 -0.51901573 2.7651134 6579803
-1.162992 -0.51934117 2.7647188 6645596
-1.1464783 -0.51929814 2.7622969 6579288
-1.1308178 -0.51962328 2.7619028 6841694
0.012970075 -0.51820838 2.767792 11183783
0.028813981 -0.51781106 2.763382 9276037
0.092210002 -0.5194906 2.7637916 7697520
0.013303403 -0.50155264 2.7635632 11446953
0.013625145 -0.4859632 2.7653511 11775918
0.083652273 -0.95325744 2.7797093 16646142
0.099325635 -0.9509005 2.7712762 16646140
-1.7017356 -0.94799 2.7790549 6250836
0.08453837 -0.90398866 2.7750382 12764882
0.085119642 -0.87111616 2.7715905 11711932
0.13275279 -0.87241209 2.7713957 12304067
0.11741991 -0.85792994 2.7775981 11777209
0.1335685 -0.84166962 2.7749729 11185072
0.14974068 -0.82572222 2.7733517 10856107
0.010023003 -0.66294432 2.7747695 9474192
0.010664389 -0.63186795 2.7783468 9079175
-1.527194 -0.56014299 2.7795243 5789257
-1.5103912 -0.56007183 2.7770953 5920844
-1.4167761 -0.5622257 2.7757416 6315601
-1.294526 -0.56623447 2.7796862 6316120
-0.88836765 -0.56087756 2.7792842 6447452
-0.87289631 -0.56140316 2.7798977 6578522
-0.85647279 -0.5613355 2.7774782 6578524
-0.82460052 -0.56179291 2.7756727 6578522
-0.81000799 -0.56291336 2.7793179 6709595
-0.79333299 -0.56264657 2.7758887 6512216
-0.73153514 -0.56495148 2.7793484 6709849
-0.68384409 -0.56573737 2.7771447 6906974
-0.54277885 -0.56989259 2.7796118 0
-1.5557524 -0.55849981 2.7752278 7170397
-1.2618132 -0.55067104 2.7766483 6315348
-1.2447252 -0.55041283 2.7732089 6578520
-1.2299182 -0.55112898 2.7748425 6513499
-1.2164202 -0.55243105 2.7795181 6579292
-1.1976079 -0.55139118 2.7720227 6513497
-1.1849296 -0.55308491 2.7787254 6381913
-1.1683306 -0.55302083 2.7763011 6512727
-1.1530175 -0.55354315 2.7769189 6644313
-1.1376934 -0.5540657 2.7775362 6446934
-1.1227678 -0.5547843 2.7791665 6578520
-1.0758907 -0.55596197 2.7789896 6644567
-1.0585796 -0.55550402 2.7745414 6775899
-1.0436028 -0.55622375 2.7761705 6710878
-1.0121009 -0.55687791 2.7753775 6775901
-0.98095787 -0.55772883 2.7755966 6644313
-0.96661407 -0.55884409 2.7792478 6578520
-0.95118254 -0.55936897 2.7798624 6645083
-0.93539762 -0.55969667 2.7794652 6710106
-0.91927624 -0.55982703 2.7780559 6775901
-0.6360966 -0.55082089 2.7757337 7104868
-0.6196031 -0.55056733 2.7723093 7367527
0.028214645 -0.55256599 2.7788599 8881794
-1.5067614 -0.54313266 2.7707779 5789257
-1.4927434 -0.54403681 2.7734344 5855051
-1.4781514 -0.54474849 2.7750731 5921613
-1.4630027 -0.54526746 2.7756948 6052430
-1.4462565 -0.54520643 2.773267 6118739
-1.4305791 -0.54553193 2.7728724 6118223
-1.4149017 -0.54585743 2.7724776 6118737
-1.4002476 -0.54657048 2.7741151 6118739
-1.3855709 -0.54728395 2.7757516 6381141
-1.3683697 -0.54702801 2.7723093 6184530
-1.3526865 -0.54735363 2.7719145 6316118
-1.3394487 -0.54865032 2.7765968 6446934
-1.3251876 -0.54955953 2.779247 6250584
-1.3075482 -0.54910833 2.7747905 6512729
-1.2927866 -0.54982358 2.7764251 6316120
-1.2766031 -0.54995525 2.7750146 6513497
-0.99456865 -0.54059619 2.770716 6710106
-0.97884017 -0.54092276 2.7703199 6644313
-0.96346498 -0.54144073 2.7709358 6579290
-0.90118986 -0.54313117 2.7713742 6841692
-0.82276541 -0.54495823 2.7704029 6710108
-0.7918452 -0.54599756 2.7716303 6643802
-0.72933245 -0.54769289 2.7720628 6775640
-0.69855607 -0.5489279 2.774297 6775901
-0.68251419 -0.54906237 2.7728903 6972767
-0.66623795 -0.54900301 2.7704744 7104355
-0.65094423 -0.5497179 2.7720954 6972767
-1.2591871 -0.53390968 2.7713594 6644315
-1.2277982 -0.53456146 2.7705693 6250327
-1.1981614 -0.53597152 2.7738352 6710106
-1.1811472 -0.53572875 2.7703979 6710876
-1.1658738 -0.53624457 2.7710164 6579290
-1.1501682 -0.53657073 2.7706208 6710874
-1.0877438 -0.53806555 2.7700524 6710106
-1.0728177 -0.53877282 2.7716827 6775899
-1.0567079 -0.53890866 2.7702742 6710106
0.012620955 -0.53622037 2.779042 11183781
0.060650319 -0.52046955 2.7736113 8289656
0.013939053 -0.47117335 2.7721517 12039090
0.067870907 -0.95527697 2.7871404 16646142
0.084071994 -0.93857986 2.7835076 14937593
0.084352396 -0.92191035 2.7812808 13423587
0.085195087 -0.89239573 2.7888749 12238535
0.0057577863 -0.87222993 2.7826285 11843777
0.021680508 -0.87470835 2.7892587 11383226
-0.10540889 -0.85450768 2.7872252 12106949
0.10163414 -0.85880679 2.7820132 12040381
0.13352773 -0.85977024 2.7822146 11711416
0.13418226 -0.82771736 2.7817771 10856107
0.010319957 -0.64923412 2.7845862 9342093
0.058449235 -0.63374597 2.7811573 8552829
0.074808173 -0.61913109 2.7855511 8487036
0.090742923 -0.61924624 2.7841465 8355452
0.043241531 -0.60304409 2.7891443 8092277
0.075136021 -0.60307616 2.7853317 7565419
-1.4395946 -0.58035064 2.7895656 6315602
-0.81241012 -0.58023608 2.7866092 6709595
-0.79744202 -0.58117706 2.7892418 6512218
-0.74986655 -0.58216488 2.7880442 6775901
-0.73454499 -0.58290315 2.7896647 6973021
-0.70306259 -0.58376688 2.7898755 6710106
-0.68718714 -0.58409655 2.7894757 6907228
-0.608033 -0.58595014 2.7884862 7368040
-0.59193432 -0.58607435 2.7870779 7368040
-1.5623276 -0.57650775 2.7866359 5986377
-1.4863583 -0.57916385 2.7897394 5986636
-1.172496 -0.57065874 2.7856426 6513497
-1.1558685 -0.57058388 2.7832177 6841692
-1.1413417 -0.57151568 2.7858615 6644313
-1.1259611 -0.57204509 2.7864773 6644313
-1.110569 -0.57257479 2.7870932 6578520
-1.0951657 -0.57310468 2.7877085 6710360
-1.0777863 -0.57262528 2.7832582 6513497
-1.0647126 -0.57436711 2.7899513 6446936
-1.0469798 -0.57368511 2.7844889 6644315
-1.0323114 -0.57461983 2.7871292 6710876
-1.0168686 -0.57515055 2.7877438 6841181
-1.0014143 -0.57568145 2.7883577 6775388
-0.98558986 -0.57601005 2.7879593 6841692
-0.97047198 -0.57674402 2.7895851 6775899
-0.9384582 -0.57719874 2.787776 6841694
-0.92262805 -0.57752746 2.7873774 6841694
-0.90613639 -0.5774498 2.7849562 6644313
-0.8903175 -0.57777828 2.7845578 6512727
-0.87449855 -0.5781067 2.7841597 6644315
-0.85993469 -0.57924926 2.7878056 6710106
-0.84470928 -0.5799855 2.7894285 6775901
-0.82764673 -0.57949966 2.7849863 6775388
-0.57552087 -0.57023454 2.7854517 7565419
0.027920621 -0.57056832 2.7891078 8881796
0.13984758 -0.57328981 2.7882962 8157303
-1.5440196 -0.5602138 2.7819545 5855565
-1.4968854 -0.56119251 2.7807679 5920844
-1.481174 -0.56151873 2.7803724 5920590
-1.4670659 -0.56244183 2.7830267 6051665
-1.45028 -0.56237024 2.7805977 6249296
-1.4361322 -0.56329417 2.783251 6183503
-1.4046642 -0.56394756 2.7824588 6118737
-1.3899424 -0.5646733 2.7840946 6250325
-1.3751979 -0.56539959 2.7857296 6316118
-1.3584516 -0.56532723 2.7833018 6316118
-1.3431954 -0.56585407 2.783921 6512727
-1.326961 -0.56598109 2.7825091 6512727
-1.3102599 -0.56590778 2.7800822 6512729
-1.2834572 -0.56856477 2.7894392 6579290
-1.2644405 -0.56748933 2.7819383 6381913
-1.2500552 -0.5684182 2.7845857 6381911
-1.2351862 -0.56914693 2.7862175 6578520
-1.218963 -0.56927377 2.784806 6513497
-1.1869832 -0.56972784 2.7829978 6710106
-0.90515012 -0.56114215 2.782716 6710108
-0.84222776 -0.56265301 2.782135 6644313
-0.77954561 -0.56436324 2.7825632 6644317
-0.76372105 -0.56469184 2.7821648 6710110
-0.7481705 -0.5652191 2.7827764 6907487
-0.71703559 -0.56627434 2.7839987 6710106
-0.70093697 -0.56640416 2.7825904 7038560
-0.66901946 -0.56686258 2.7807837 7038560
-0.65414965 -0.56798881 2.7844217 7039073
-0.63806242 -0.56811851 2.7830136 7170659
-0.62267286 -0.56884676 2.7846324 7368040
-0.60614491 -0.56857687 2.7812071 7302247
-0.59139067 -0.56990504 2.785851 7302247
-0.55882645 -0.56976378 2.781019 7631726
0.011948024 -0.56983948 2.7875037 10460828
-1.1082236 -0.55569941 2.7818098 6578520
-1.09245 -0.55602694 2.7814126 6644313
-1.0297313 -0.55753356 2.7808366 6579292
-0.9985373 -0.55838567 2.7810547 6841694
0.012271501 -0.55416471 2.7892904 11051682
0.092210144 -0.55621046 2.789284 8092278
0.10804024 -0.5555743 2.7838707 8158071
-0.0033620319 -0.53738672 2.7874672 13025987
0.044545129 -0.53856879 2.7872641 0
0.076488428 -0.53923202 2.7864599 8092278
0.09248624 -0.53975147 2.78706 8026744
0.076713398 -0.52225572 2.7812293 7894898
-1.619396 -1.1440833 2.7925398 0
-1.6967179 -1.1104347 2.7930653 6579803
-1.7095013 -0.93659276 2.7921083 6053459
-0.074047551 -0.87272066 2.7916687 12501709
0.085922301 -0.86119092 2.7914479 11645110
0.13496229 -0.81482506 2.7925925 10724007
0.12302126 -0.62207389 2.7933664 8355709
0.20301235 -0.62351912 2.7903495 8684163
0.010939783 -0.61996233 2.7971914 9013128
-0.65792525 -0.60262209 2.7979779 7235939
-0.56298602 -0.6052407 2.7985976 7565933
0.011266199 -0.60406053 2.7979746 9013382
0.1393614 -0.60630029 2.7927434 8290170
-1.5689054 -0.59464091 2.7980459 6183754
-1.1316162 -0.59062886 2.7998705 6710108
-1.0836138 -0.59140992 2.7976589 6644313
-1.0522672 -0.59227645 2.797873 6579292
-1.0360214 -0.59239817 2.7964609 6775901
-1.0208982 -0.59314364 2.7980866 6841696
-1.0057522 -0.59388959 2.7997117 6644317
-0.98771042 -0.59296978 2.7932379 6775899
-0.9725647 -0.59371579 2.7948632 6775901
-0.95809186 -0.59487921 2.798512 6841694
-0.94186288 -0.59500045 2.7971001 6907487
-0.92598182 -0.59533024 2.7967002 6841694
-0.91043144 -0.59586883 2.797312 6645083
-0.89454466 -0.59619868 2.7969122 6710108
-0.84780896 -0.59781635 2.7987454 6775642
-0.8000977 -0.59880704 2.7975442 6643802
-1.5053957 -0.58006305 2.7962382 5986636
-1.4721997 -0.58010513 2.7923927 6183762
-1.457478 -0.58084232 2.7940288 6183762
-1.4264145 -0.58170301 2.7942498 6184530
-1.4101064 -0.58182597 2.7928362 6316118
-1.396847 -0.58318001 2.7975187 6250838
-1.3790256 -0.58268696 2.793057 6447704
-1.3637244 -0.58322054 2.7936752 6446934
-1.3493904 -0.58416539 2.796324 6447706
-1.3316369 -0.58367097 2.7918639 6447704
-1.3177525 -0.5848223 2.7955275 6645083
-1.3019336 -0.58515078 2.7951293 6710878
-1.2856481 -0.58527315 2.793716 6447704
-1.2698348 -0.58560151 2.7933178 6578520
-1.2567534 -0.58716756 2.7990079 6775901
-1.2377588 -0.58605182 2.791507 6578009
-1.2237271 -0.58720607 2.7951667 6775899
-1.2087736 -0.58794808 2.7967968 6578522
-1.1920667 -0.5878635 2.7943697 6710106
-1.1775175 -0.58881283 2.7970133 6644313
-1.1462389 -0.58967805 2.7972291 6579292
-1.11332 -0.58971435 2.7933905 6644054
-0.78301084 -0.58252686 2.7938943 6775903
-0.76768368 -0.5832653 2.7955148 6709595
-0.71893805 -0.58343726 2.7902751 6775901
-0.67278677 -0.58565587 2.7951322 6907485
-0.65639699 -0.58557606 2.7927132 7039073
-0.64026433 -0.58570099 2.7913039 7170148
-0.62482971 -0.58644158 2.7929215 7301734
-0.57711846 -0.58743227 2.7917206 7433833
-0.56203967 -0.5885855 2.7953537 7500140
-0.54551154 -0.58829862 2.7919278 7763312
-0.52940714 -0.58842295 2.7905195 8026484
-0.51444989 -0.58978379 2.7951589 0
0.011592851 -0.5881474 2.7987578 9802128
0.027624264 -0.58868456 2.7993572 8750208
-1.5815065 -0.57740396 2.7931383 0
-1.5510961 -0.57846689 2.794379 5790025
-1.5342025 -0.57838619 2.7919474 5855818
-1.5189861 -0.57891792 2.7925675 5855302
-1.2058188 -0.5708071 2.7904942 6644315
-0.95498383 -0.57727569 2.7901986 6775903
0.043951672 -0.57209325 2.7947223 8354682
0.10815462 -0.57441962 2.798121 8092280
0.12415692 -0.57455325 2.7967153 8223866
-0.0037847843 -0.55576092 2.7997241 12631743
0.044253346 -0.55540764 2.7914944 8421243
0.060247626 -0.55573976 2.7910917 8158584
0.076323465 -0.55684543 2.7946987 8092791
0.12441155 -0.55803686 2.7944908 8223864
0.028615873 -0.54048526 2.7996993 8946817
0.06059102 -0.53983831 2.7918744 8092537
0.068444811 -0.9438588 2.8009815 14871800
0.069192231 -0.91321683 2.8055623 12896214
0.069905847 -0.88184655 2.8081334 11514812
0.0059690271 -0.864048 2.8085263 11909313
-0.12213067 -0.85897887 2.8037162 12238789
0.11873418 -0.85022521 2.8054752 11645623
0.25201011 -0.66129363 2.8096068 8815749
0.10678633 -0.65714246 2.8082459 0
0.026661705 -0.63906473 2.809047 8882307
-0.67614764 -0.6200428 2.8066738 7104607
-0.51756823 -0.62466419 2.8087015 7829105
-0.48573527 -0.62554657 2.8089035 8223863
-0.46989658 -0.62609684 2.8095078 8487548
-0.0051105847 -0.62049204 2.8016083 11644334
0.059104651 -0.62268841 2.8040049 8355963
0.10725992 -0.62347251 2.801789 8487036
0.17153986 -0.62502301 2.8011742 8815749
-1.5907696 -0.61235482 2.8088388 6052168
-1.0560302 -0.6101619 2.8072073 6974050
-1.0401095 -0.61049247 2.8068066 7039589
-1.0241888 -0.61082304 2.8064058 7236450
-1.008268 -0.61115366 2.806005 7104864
-0.99270648 -0.61169815 2.8066163 7170657
-0.97642654 -0.6118148 2.8052034 7170659
-0.96189755 -0.61300218 2.8088508 7170659
-0.94492733 -0.61269027 2.8054135 7104866
-0.92866433 -0.61280656 2.8040009 7170146
-0.89714819 -0.61368233 2.8042107 6973280
-0.88250047 -0.61487228 2.8078554 6973278
-0.86717939 -0.61563325 2.8094761 6907487
-0.8036294 -0.61717427 2.8088796 6841181
-0.7865206 -0.61664373 2.8044357 6906974
-0.70860565 -0.61981165 2.8094974 6973021
0.18823019 -0.61025566 2.8055575 8421245
-1.4007163 -0.60056901 2.8048484 6447704
-1.3848579 -0.60089833 2.8044491 6579290
-1.3694944 -0.60143876 2.8050656 6841692
-1.3521621 -0.6011343 2.8016193 6776671
-1.3363149 -0.60146338 2.8012204 6907739
-1.3219019 -0.60242701 2.8038673 6973532
-1.3079274 -0.60360289 2.807529 6776669
-1.2897069 -0.60287404 2.8020537 6908255
-1.2743095 -0.60341519 2.8026693 6841692
-1.2611779 -0.60501647 2.8083587 6973278
-1.2439305 -0.60471028 2.8049145 7039325
-1.2284935 -0.60525227 2.8055291 7039073
-1.2126067 -0.60558212 2.8051293 7039073
-1.1980184 -0.60654932 2.8077719 7039073
-1.1808331 -0.60624188 2.8043294 6974050
-1.1657894 -0.60699713 2.8059573 6974048
-1.1507229 -0.6077528 2.8075845 6842462
-1.1339931 -0.60765737 2.8051567 6907485
-1.1193087 -0.6086266 2.8077972 6841692
-1.1029946 -0.60874379 2.8063829 6710876
-1.0882648 -0.60971397 2.8090222 6973278
-1.0700132 -0.60876435 2.8025427 6841694
-0.76940989 -0.60030723 2.8007846 6709847
-0.75348347 -0.60063791 2.8003836 6906974
-0.73782581 -0.60117882 2.8009927 6841435
-0.72294563 -0.60235071 2.8046312 6841181
-0.70724821 -0.6028924 2.8052392 6841181
-0.69153947 -0.60343432 2.8058467 6907489
-0.67434359 -0.60271263 2.8003979 7039073
-0.64387625 -0.60463977 2.8056502 7170148
-0.62813359 -0.60518241 2.8062572 7235939
-0.61170954 -0.60509193 2.8038371 7499111
-0.59530818 -0.60500097 2.8014178 7433831
-0.57998961 -0.60596633 2.8040419 7499626
-0.54824704 -0.60684115 2.8042459 7763312
-0.53207463 -0.60696125 2.8028357 7894898
-0.51629239 -0.60750467 2.8034415 7960691
-0.49976388 -0.60720062 2.8000157 8224376
-0.48398164 -0.60774404 2.8006215 8487548
-0.0047976058 -0.60477728 2.8033948 11776688
0.10762111 -0.60753161 2.8025711 8158584
-1.5570494 -0.59643716 2.8047705 5987406
-1.5400991 -0.59634626 2.8023374 6052429
-1.5248262 -0.59688479 2.8029561 6118990
-1.508996 -0.59721345 2.8025575 6118739
-1.4947867 -0.59817284 2.8052099 6184015
-1.4778702 -0.59808123 2.8027773 6315602
-1.4620343 -0.59841007 2.8023787 6315602
-1.4456753 -0.59852827 2.8009634 6315602
-1.4324334 -0.59991044 2.8056469 6447188
-1.4155509 -0.59981811 2.803215 6578774
-1.100674 -0.59170288 2.8010981 6644313
-1.0696867 -0.59277773 2.8023245 6579292
-0.87993604 -0.59736502 2.8005571 6643802
-0.86434054 -0.59790456 2.801168 6775901
-0.83281291 -0.59877497 2.8013775 6775903
-0.8171891 -0.59931511 2.8019874 6709849
-0.78505081 -0.59976673 2.8001752 6709849
0.043755405 -0.59126747 2.8099852 8158330
0.091914691 -0.59124565 2.8037574 7828338
0.10810841 -0.5923993 2.8073621 7434096
0.12431026 -0.5933488 2.8099635 7368557
0.1404177 -0.59368324 2.8095579 7763313
0.1562829 -0.59299088 2.8041432 8223096
0.17247026 -0.59373575 2.8057418 8026487
-1.1633559 -0.58996981 2.8006697 6644313
-0.004476029 -0.58883548 2.8041778 12433850
0.060094472 -0.57421637 2.8033431 7829108
0.076116093 -0.57415175 2.8009336 8026485
0.092192881 -0.57468426 2.8015318 8158073
-1.7105318 -1.0406132 2.8175101 5987664
-1.7095549 -0.99277294 2.8168571 5921871
-1.7110791 -0.977862 2.8197012 6119252
-1.7076706 -0.96020031 2.8143806 6052944
-1.7098107 -0.94560051 2.8182449 6119252
0.06907513 -0.93325424 2.8178332 13292001
0.070435897 -0.86900026 2.8189557 11250865
0.10296813 -0.8528524 2.8159151 11908282
-0.15474913 -0.84661478 2.8193901 11646652
0.13640532 -0.80627513 2.8194544 10000538
-0.61571932 -0.64055043 2.819411 7236452
-0.55191785 -0.64232945 2.8198116 7763312
-0.50299531 -0.64243674 2.8145664 8092277
-0.48749074 -0.64344013 2.8171861 8158070
-0.47195226 -0.64444411 2.8198051 8355449
-0.45554474 -0.64433056 2.8173854 8619134
0.23668076 -0.64608276 2.8157995 8749956
-1.5803618 -0.63061982 2.8178177 5789509
-0.99698681 -0.6301353 2.8179722 7170659
-0.96431339 -0.63035947 2.8151426 7105634
-0.94970566 -0.63157129 2.8187885 7301732
-0.93370575 -0.63190353 2.8183856 7170659
-0.91803688 -0.63245606 2.8189948 7104866
-0.88538617 -0.63267976 2.8161659 7105382
0.23731859 -0.63070375 2.8195832 0
-1.327966 -0.62099153 2.8162706 6841946
-1.3115615 -0.62110496 2.8148539 6842715
-1.2970356 -0.62208802 2.8174984 6776667
-1.28017 -0.62198395 2.8150673 6908253
-1.265149 -0.6227501 2.8166957 7039071
-1.2496555 -0.623299 2.8173094 7104864
-1.2341508 -0.62384808 2.8179224 6973278
-1.203107 -0.62494683 2.8191473 7236704
-1.1858594 -0.62462366 2.8157032 6974048
-1.1715969 -0.62582827 2.8193576 7104864
-1.1560411 -0.62637842 2.8199694 6973278
-1.1396534 -0.62649155 2.8185534 7039071
-1.1057153 -0.62606061 2.8126822 7039071
-1.0769299 -0.62847537 2.8199847 7039325
-1.0609413 -0.62880737 2.8195822 6973278
-1.0285933 -0.6292519 2.8177643 7170659
-0.72590405 -0.62055969 2.8149495 6907228
-0.69337803 -0.62079215 2.812124 7038812
-0.66185904 -0.62188953 2.8133373 7170146
-0.64608258 -0.62243849 2.8139434 7236452
-0.62960744 -0.62233776 2.811522 7170148
-0.61404878 -0.62310362 2.8131368 7433833
-0.59759623 -0.62300247 2.8107162 7499113
-0.58201492 -0.62376881 2.8123305 7564906
-0.56599802 -0.62410134 2.8119273 7697005
-0.55038285 -0.62486851 2.8135409 7566446
-0.53454977 -0.62541866 2.8141456 7894384
-0.50193036 -0.62543166 2.8103144 8026484
0.043171618 -0.62559366 2.8194544 8684415
0.18849495 -0.62861121 2.8157959 8618372
-1.578329 -0.61397588 2.8145461 5854789
-1.5613163 -0.61387491 2.8121111 5855050
-1.5471128 -0.61485118 2.8147635 5986636
-1.5312203 -0.61518121 2.8143635 5987151
-1.514782 -0.61529541 2.8129463 5855820
-1.4988952 -0.61562526 2.8125465 6249806
-1.4846127 -0.6166032 2.815197 6118992
-1.4697672 -0.61736572 2.8168302 6184016
-1.454899 -0.61812872 2.8184626 6184016
-1.4374191 -0.61781025 2.8150122 6315089
-1.4215097 -0.61814058 2.8146117 6447188
-1.4066132 -0.61890417 2.8162436 6513495
-1.3906925 -0.6192348 2.8158429 6645085
-1.3737814 -0.61913162 2.8134103 6710108
-1.3588511 -0.61989594 2.8150413 6710360
-1.3414788 -0.61957526 2.8115935 6841946
-0.9150604 -0.61463904 2.8106816 6908255
-0.85152733 -0.6161797 2.8100855 7170146
-0.83586407 -0.61672646 2.8106947 6907487
-0.8207835 -0.61770386 2.8133249 6973278
-0.77253753 -0.61848414 2.8111069 6973278
-0.75682902 -0.61903185 2.8117149 6841692
-0.74137783 -0.61979544 2.8133323 7038814
0.12423849 -0.61102736 2.8172002 8355452
0.15638758 -0.61106473 2.8133814 8487295
0.17246366 -0.61118853 2.8119736 8684417
0.05963596 -0.60947591 2.8178234 7697005
0.09186732 -0.60972506 2.8150055 7631726
0.059982024 -0.59344357 2.8186045 7894899
0.076028273 -0.59275502 2.8131852 8025970
-0.0042023114 -0.57407331 2.8109796 12368825
-1.7136525 -1.0740246 2.8220301 6251095
-1.7139081 -1.0268406 2.8234177 5921873
0.021389866 -0.90263468 2.8276482 11712710
0.069827072 -0.90239024 2.8224108 12106949
0.054024126 -0.88611937 2.8235996 11514814
0.038230699 -0.87074077 2.8278015 12105920
0.05443107 -0.87167943 2.8294022 11447990
0.087160811 -0.85636508 2.8293688 11776696
-0.17111717 -0.84745663 2.8238194 11515580
0.13740078 -0.77593249 2.827034 9473679
-0.93806261 -0.68255985 2.8291657 6710108
-0.8417235 -0.68456024 2.8267405 6841181
-0.826262 -0.68536973 2.8283587 6709595
-1.6337425 -0.67952502 2.8278217 5657671
-1.3642409 -0.67004752 2.8248405 6117969
-1.350206 -0.67131573 2.8285017 6315350
-1.3172715 -0.67151111 2.8256652 6117971
-1.2702346 -0.67297626 2.8264885 6381913
-1.2546904 -0.67354321 2.8271008 6381913
-1.1599398 -0.67624331 2.8277261 6249296
-1.1443334 -0.67681152 2.828337 6249296
-1.0814072 -0.67885077 2.8297637 6447188
-1.0497049 -0.6797533 2.8299694 6446934
-1.6157246 -0.66311616 2.8241465 5197118
-1.5992179 -0.66321468 2.822727 5197121
-1.5673651 -0.66387606 2.8219252 5328447
-1.5536698 -0.66513735 2.8255951 5262400
-1.5388248 -0.66593397 2.8272285 5395269
-1.5245037 -0.66696393 2.8298788 5394499
-1.5058227 -0.66613084 2.8243904 5657671
-1.4904088 -0.66669506 2.825006 5263683
-1.4590231 -0.66759098 2.8252194 5591879
-1.4281275 -0.66872096 2.8264489 5658186
-1.4136764 -0.66975361 2.8290961 5790027
-1.1764714 -0.66025841 2.8299379 6775899
-0.90594548 -0.66730678 2.8291488 7170661
-0.53774887 -0.66065037 2.8276949 7894384
-0.50534993 -0.66109037 2.8258758 8223347
-0.48889121 -0.6609664 2.8234544 8289908
-0.42577592 -0.66413957 2.8298934 9013639
-1.5555726 -0.65000153 2.8294463 5920841
-1.4757143 -0.65165973 2.827436 6183503
-1.4128411 -0.65344226 2.8278601 6184015
-1.3978602 -0.65423042 2.8294899 6381394
-1.3343616 -0.65578735 2.8288949 6709847
-1.3178889 -0.65589094 2.8274767 6710106
-1.3028288 -0.65668064 2.8291049 6775899
-1.2863617 -0.65678406 2.8276865 6907738
-1.2392509 -0.65823931 2.8285077 6842462
-0.92134649 -0.65058988 2.8283205 6974050
-0.90528995 -0.65092331 2.8279164 7104864
-0.85773754 -0.65237641 2.8287263 7170659
-0.82619649 -0.65349698 2.8299394 7236193
-0.79375219 -0.65393782 2.8281188 7104605
-0.76187986 -0.65483242 2.82832 7236191
-0.69756335 -0.65616792 2.8267009 6972767
-0.61761492 -0.6582936 2.826695 7433833
-1.6171381 -0.64776915 2.826982 5855302
-1.6017637 -0.64832687 2.8275986 5657669
-1.5835333 -0.64775133 2.8231254 5658439
-1.5709809 -0.64944309 2.8288305 5658437
-1.301566 -0.64013392 2.8268545 6776669
-1.2851105 -0.64024287 2.8254368 6907485
-1.270033 -0.64102155 2.827064 6841694
-1.2540331 -0.64135379 2.8266613 7039325
-1.2233493 -0.64268935 2.8288991 6974048
-1.2073325 -0.64302194 2.828496 7104864
-1.1744553 -0.64323896 2.8256617 6908255
-1.1601139 -0.64446807 2.8293142 6841692
-1.144496 -0.64502513 2.8299246 7105118
-1.1280575 -0.64513367 2.8285074 7104864
-1.1112311 -0.64501739 2.8260767 6907485
-1.0963944 -0.64602393 2.8287137 6973021
-1.0807483 -0.64658159 2.8293231 6907485
-1.0647087 -0.6469146 2.8289194 7039071
-1.0479164 -0.64679772 2.8264897 7039071
-1.0326297 -0.64758074 2.8281116 7105636
-0.99983162 -0.64779615 2.8252792 7104866
-0.98486489 -0.64880544 2.8279128 7236450
-0.95243198 -0.64924598 2.8260927 6908255
-0.68090761 -0.64010531 2.8250656 7104866
-0.66483408 -0.64043909 2.824661 7170659
-0.64923042 -0.64121729 2.8262751 7236454
-0.63291645 -0.64132893 2.824861 7433320
-0.60032225 -0.64155149 2.8220336 7433833
-0.58425432 -0.6418851 2.821629 7433318
-0.56797999 -0.64199591 2.8202162 7697003
-0.53605092 -0.64288604 2.8204155 7828591
-0.51998305 -0.64321965 2.8200111 8091250
-0.44125751 -0.64712566 2.828063 9013639
-0.0056181368 -0.64127314 2.8229029 11250090
0.075312287 -0.64450359 2.8278885 8289657
-1.6133296 -0.63040096 2.8206546 0
-1.5979891 -0.63095236 2.8212719 5855302
-1.567837 -0.63227689 2.8235233 5921095
-1.5507843 -0.63216531 2.8210869 5986634
-1.5376173 -0.6336028 2.8257728 5987406
-1.5205702 -0.6334911 2.8233366 6052429
-1.505708 -0.63426536 2.8249695 6117709
-1.4897532 -0.63459665 2.8245678 6117961
-1.4743278 -0.63514984 2.8251829 6052944
-1.4562732 -0.63459343 2.8207145 6184016
-1.4408534 -0.63514638 2.8213298 6315602
-1.4284958 -0.63703275 2.828043 6381141
-1.4125128 -0.63736463 2.8276405 6447188
-1.394526 -0.63680685 2.823174 6579288
-1.379061 -0.63736075 2.8237879 6513495
-1.3635848 -0.63791496 2.8244021 6645081
-1.347613 -0.6382466 2.8239999 6776153
-1.3321197 -0.63880104 2.8246133 6907739
-1.3156698 -0.63890988 2.8231957 6776667
-1.0140706 -0.63046199 2.8214123 7302245
-0.98276675 -0.63156617 2.8226309 7368036
-0.90333301 -0.63366985 2.822638 7236454
-0.87127656 -0.63433546 2.821831 7236452
-0.85617375 -0.6353305 2.824461 7104868
-0.83922011 -0.63500112 2.8210242 7170657
-0.82408333 -0.63599682 2.8236532 7236191
-0.80774659 -0.63610888 2.8222384 7301984
-0.7919929 -0.63666314 2.8228455 7104353
-0.77594769 -0.63699633 2.8224413 7104353
-0.75935352 -0.6368866 2.8200169 7236193
-0.74412614 -0.6378842 2.8226435 7236193
-0.72807527 -0.63821745 2.8222396 7038560
-0.71202445 -0.63855076 2.8218355 6907228
-0.69622546 -0.63910592 2.8224411 6906974
-1.2203889 -0.62526941 2.8225927 7039325
-1.1244912 -0.62726063 2.8201785 7170657
-1.0929185 -0.62814337 2.8203871 7038812
-1.0460818 -0.62979734 2.8222182 7236450
0.027027534 -0.62547421 2.820864 8619135
0.027377741 -0.61048651 2.8266609 8421242
-1.5979092 -0.59913164 2.8218522 0
-1.722623 -1.0953857 2.8365445 6316631
-1.7219676 -1.0632873 2.8361063 6316116
-1.7197504 -1.0144264 2.8334074 5987151
0.037972685 -0.89038873 2.8390703 11711680
0.1201965 -0.84336364 2.8373609 11316657
-1.6235983 -0.6822347 2.8376031 5065534
-1.5612493 -0.68427896 2.8390443 5329476
-1.5452268 -0.68461162 2.8386409 5460292
-1.5142635 -0.68575442 2.839869 5329476
-1.0676618 -0.68060142 2.8354392 6446677
-1.0340307 -0.68032295 2.8305783 6446936
-1.0198067 -0.68183935 2.8352385 6513499
-1.0033679 -0.68193638 2.8338208 6578520
-0.98800254 -0.68274391 2.8354414 6644315
-0.97122091 -0.6826039 2.8330114 6644315
-0.9558329 -0.6834119 2.8346314 6643802
-0.92432612 -0.68455452 2.8358452 6775899
-0.90855587 -0.68512625 2.836452 6709849
-0.89245409 -0.68546057 2.8360467 6972767
-0.87540889 -0.68508184 2.8326068 6775388
-0.86025047 -0.68612927 2.8352361 6906974
-0.81106967 -0.68641776 2.830987 6709849
-0.50807548 -0.6803385 2.8392034 7894898
-0.47572482 -0.68101025 2.8383889 8750207
-0.45938224 -0.68111104 2.8369737 8750720
-0.44353575 -0.68191713 2.838582 9013639
-0.41087326 -0.6821183 2.8357525 9342604
-1.447726 -0.6700235 2.8339677 5789772
-1.3986899 -0.67055321 2.8307259 5986637
-1.38269 -0.67088538 2.830323 6183762
-1.3351687 -0.6721164 2.8301306 5987155
-1.3040919 -0.67325008 2.8313553 6249555
-1.2880751 -0.67358267 2.8309519 6446677
-1.2404689 -0.67481536 2.8307571 6513499
-1.2244464 -0.67514807 2.8303537 6578522
-1.2097235 -0.67618638 2.832994 6644317
-1.1941117 -0.67675483 2.8336048 6315350
-1.1768006 -0.67638159 2.830158 6381395
-1.1303358 -0.67832327 2.8330028 6446677
-1.1138858 -0.67842066 2.8315849 6249555
-1.0978405 -0.67875379 2.831181 6447187
-0.82801354 -0.67083305 2.8352151 7235939
-0.81161445 -0.67093509 2.8337989 7170400
-0.79665685 -0.67219973 2.8374364 7170398
-0.74882179 -0.67366999 2.8382392 6841433
-0.73321295 -0.67447108 2.8398533 6841433
-0.70091885 -0.67514163 2.8390403 7038560
-0.66886556 -0.67604572 2.8392367 7170146
-0.60425478 -0.6773873 2.8376102 7762798
-0.58703953 -0.67655224 2.8321593 7499626
-0.57132888 -0.67735547 2.833771 7762798
-0.55599791 -0.67862791 2.837399 7763312
-0.52349126 -0.67906427 2.835577 7894899
-1.587844 -0.66540462 2.8304698 5460290
-1.4776307 -0.66842562 2.8307061 5591878
-1.2093941 -0.66005176 2.8327737 6907489
-1.1937821 -0.66061455 2.8333843 6841692
-1.1621078 -0.66151071 2.8335905 6841692
-1.1472886 -0.662534 2.8362281 6907485
-1.130411 -0.6624074 2.833796 6775901
-1.1143545 -0.66274077 2.8333917 6841694
-1.0986916 -0.66330457 2.8340011 6907739
-1.0822413 -0.66340756 2.8325832 7105118
-1.0673316 -0.66443276 2.8352187 7104607
-1.0508816 -0.66453582 2.833801 7301732
-1.034443 -0.66463864 2.8323836 6973280
-1.0194765 -0.66566491 2.8350174 7104864
-1.0023185 -0.66530567 2.8315749 7039325
-0.98625636 -0.66563916 2.8311706 7104866
-0.97089076 -0.66643524 2.8327906 6907487
-0.95413196 -0.6663062 2.8303618 7039071
-0.93941772 -0.66756582 2.8340056 6973278
-0.92233896 -0.66720486 2.830565 7170661
-0.89276326 -0.66972709 2.8378487 7236452
-0.8750785 -0.66890174 2.8323858 7302245
-0.85899371 -0.66923577 2.8319809 7236450
-0.84290886 -0.66956973 2.8315759 7302245
-0.586496 -0.66010392 2.830929 7630699
-0.570584 -0.66066712 2.831532 7762798
-0.55466056 -0.66123056 2.8321345 7697519
-0.52259022 -0.66212928 2.8323307 7960177
-0.47401026 -0.66290516 2.8301041 8487289
-0.45854875 -0.66415745 2.8337288 8618621
-0.44191161 -0.66380453 2.8302996 8816514
0.17281097 -0.6655544 2.8376889 9407886
0.22153789 -0.6663391 2.8354588 8816262
-1.5401529 -0.65056026 2.8300617 5920841
-1.5247219 -0.65111917 2.8306766 5855048
-1.5092795 -0.65167832 2.8312914 5986123
-1.4932909 -0.65201032 2.830889 6117709
-1.4613137 -0.65267432 2.8300841 6118223
-1.4463611 -0.65346181 2.8317146 6184015
-1.4303612 -0.65379399 2.8313117 6249808
-1.3838475 -0.65547538 2.8331513 6578774
-1.3673409 -0.65557963 2.8317325 6579292
-1.3522977 -0.65636903 2.8333607 6578520
-1.2726408 -0.65826154 2.8323591 6841694
-1.2566124 -0.65859431 2.8319554 6776671
-1.2245561 -0.65925997 2.8311484 6710878
-0.97021234 -0.65004098 2.8315578 7170657
-0.93841344 -0.65093404 2.8317606 7039839
-0.89051312 -0.65216148 2.8315585 7039843
-0.87474811 -0.65272164 2.832165 7104866
-0.84257847 -0.65338963 2.8313551 7038814
-0.81070042 -0.65428436 2.8315561 7104353
-0.77879983 -0.6551795 2.8317564 7104604
-0.74687654 -0.65607524 2.8319561 7038812
-0.73103809 -0.65663689 2.832561 6775642
-0.71441531 -0.65651637 2.8301353 6906974
-0.68345475 -0.65832347 2.8343735 7104353
-0.66684902 -0.65820259 2.8319483 7104866
-0.65073591 -0.65853715 2.8315427 7170146
-0.63485223 -0.65909982 2.8321464 7367527
-0.60261476 -0.65976918 2.8313348 7368040
0.22194265 -0.65020543 2.8362372 8749956
-1.2411436 -0.64325112 2.8333609 6974046
-1.1925977 -0.64402634 2.8311355 6974048
-1.0176855 -0.64858949 2.8307459 7039589
0.091815844 -0.6475035 2.8395131 8487035
0.18941094 -0.64952999 2.8370562 8947335
0.14094752 -0.63215452 2.8380611 8487297
0.15692408 -0.63119179 2.8316395 8684674
-1.7291263 -1.115343 2.8469763 6448215
0.053257853 -0.94102377 2.843348 13358307
-1.739032 -0.93653095 2.8408787 6184530
-1.7255085 -0.93817568 2.8445578 6185042
0.0044969344 -0.93871564 2.8405569 13622251
0.053664912 -0.92657816 2.8491504 12699605
0.054978449 -0.86042398 2.8462474 11843002
0.071261272 -0.86076206 2.8458374 12039868
-0.1401944 -0.85518962 2.8471437 11909822
-0.20497893 -0.83777082 2.8495641 11186099
0.072580397 -0.79497182 2.8439395 0
-1.6461252 -0.71659434 2.8486316 5197890
-1.64345 -0.69946325 2.8443367 5329221
-1.3758382 -0.69162756 2.8484285 6183764
-1.3602207 -0.69220173 2.8490391 6117971
-1.2957909 -0.69353956 2.8474171 6446934
-1.2805954 -0.69435489 2.8490419 6381143
-0.80042213 -0.69127887 2.8497877 6973019
-0.78310776 -0.69066149 2.8453372 6512470
-0.75130689 -0.69181025 2.8465438 6775388
-0.73565292 -0.69262373 2.8481572 6775642
-0.71971852 -0.69319886 2.8487597 7038560
-0.7030161 -0.69305718 2.8463318 7038560
-0.68781579 -0.69434971 2.8499637 7104605
-0.65492672 -0.6945442 2.8471284 7104868
-0.63895833 -0.69511992 2.8477299 7367527
-0.62275469 -0.69545639 2.847322 7565419
-0.60698766 -0.69627219 2.8489325 7631212
-0.57414389 -0.69646573 2.8460982 7828591
-0.55814159 -0.69704229 2.8466992 7960177
-0.54193234 -0.69737887 2.8462911 8025970
-0.52610302 -0.69819587 2.8478997 8223349
-0.47761422 -0.69944686 2.8476825 8552828
-1.6104668 -0.68375683 2.8422909 5197121
-1.5938637 -0.68385172 2.8408694 5066304
-1.5795261 -0.68489909 2.8435194 5394497
-1.5308439 -0.68566 2.84129 5328706
-1.4993001 -0.68656492 2.8414998 5460293
-1.484314 -0.6873759 2.8431299 5460807
-1.4547923 -0.68923849 2.8474052 5592393
-0.49261439 -0.68161362 2.8428283 8289656
-0.42860222 -0.68413532 2.8462343 9211018
-0.39658353 -0.6855157 2.848439 9408908
-0.781654 -0.67346525 2.8410728 7236191
-0.76660591 -0.67473179 2.844708 6709847
-0.71809691 -0.67573905 2.8434868 6906974
-0.68526477 -0.67594379 2.8406534 7301986
-0.65341824 -0.67708206 2.8418586 7235941
-0.63701916 -0.67718405 2.8404422 7302247
-0.62085509 -0.67751968 2.8400354 7433833
-0.5406217 -0.67990124 2.8410261 8091508
-0.41249311 -0.66883892 2.8486247 9342604
-0.0061133816 -0.66183925 2.8421934 10854564
0.15697694 -0.66726977 2.8471179 9473679
0.20566744 -0.66737229 2.8418787 9209739
0.20606719 -0.65120447 2.8426564 8749956
-0.022144074 -0.64668727 2.8494051 13355468
0.10811281 -0.64806336 2.840106 8684417
-0.021460282 -0.61367339 2.8479536 0
-1.8768685 -1.2259527 2.8541889 0
-1.7195644 -1.1357477 2.8570049 6513497
0.053091045 -0.96199846 2.8576336 14871546
-1.7307253 -0.92497218 2.8535209 6316116
0.037732013 -0.91109979 2.8533542 11844294
0.054061074 -0.91175145 2.8539479 12041158
0.022764573 -0.84684592 2.8588939 10921900
0.055363953 -0.84520483 2.8500395 0
0.10439923 -0.84738207 2.8528218 11645109
-0.22132821 -0.83772105 2.8509798 11317685
-0.75471354 -0.80686206 2.852143 6973027
-0.73930299 -0.8080343 2.8547673 7104613
-0.72359979 -0.80892849 2.8563805 7236201
-1.636451 -0.7196694 2.8594303 5197890
-1.3815597 -0.71052438 2.8598268 5921108
-1.3639424 -0.71012336 2.8563719 6184534
-1.348753 -0.71094996 2.8579972 6250325
-1.3325946 -0.71128547 2.8575904 6250327
-1.3173711 -0.71211272 2.8592145 6316118
-1.3007398 -0.71220255 2.8577921 6184532
-1.1415309 -0.71704191 2.8598068 6183764
-0.70612442 -0.71203107 2.8576646 7039075
-0.69012219 -0.71261322 2.8582654 7038560
-0.6564362 -0.71206313 2.8523989 7302247
-0.64135855 -0.71362573 2.8570378 7499626
-0.60906792 -0.71454614 2.8572285 7762798
-0.5930205 -0.71512932 2.8578284 7697005
-0.57634044 -0.71497577 2.855401 7763312
-0.56048876 -0.71580482 2.8570094 8157556
-0.54441863 -0.71638834 2.8576086 8223863
-0.52795708 -0.71648026 2.8561904 8223863
-0.51224452 -0.71755624 2.8588057 8487035
-0.47950578 -0.71798611 2.8569779 8881793
-0.43114275 -0.71973997 2.8587716 9079432
-1.6320555 -0.70174474 2.8520803 5460292
-1.6182704 -0.7030533 2.8557482 5394499
-1.6015937 -0.70314401 2.8543248 5262914
-1.585492 -0.70347834 2.8539193 5262914
-1.5727382 -0.70527673 2.8596208 5460293
-1.5549453 -0.7048794 2.8561616 5460292
-1.5377333 -0.70472556 2.8537207 5460293
-1.5210849 -0.70481569 2.852298 5526085
-1.5076598 -0.70637238 2.8569787 5461062
-1.4931188 -0.70744109 2.8596239 5591878
-1.4753996 -0.70704228 2.8561666 5591878
-1.4577144 -0.70664263 2.85271 5657672
-1.444165 -0.70820206 2.8573878 5854538
-1.4280236 -0.70853722 2.8569815 5789258
-1.4128848 -0.70936275 2.8586078 5920844
-1.1407931 -0.70050651 2.8585703 6380882
-1.1246009 -0.70084274 2.8581629 6446160
-1.1091961 -0.70166236 2.8597822 6315350
-1.0764062 -0.70209336 2.8579531 6446423
-1.0598316 -0.7021876 2.8565323 6512731
-1.0440104 -0.702766 2.8571377 6578524
-1.0281779 -0.70334458 2.8577425 6512731
-1.0119743 -0.70368105 2.8573346 6578522
-0.9954164 -0.70377505 2.8559144 6381143
-0.97991568 -0.70459676 2.8575315 6578522
-0.96370637 -0.70493329 2.8571234 6446677
-0.94850862 -0.70599848 2.8597517 6578522
-0.93195081 -0.70609248 2.8583312 6775901
-0.91573024 -0.70642924 2.8579228 6578524
-0.86799526 -0.70817018 2.8597322 6906974
-0.8514545 -0.7082637 2.8583121 6710110
-0.83492494 -0.70835698 2.8568923 6644317
-0.81899071 -0.70893776 2.8574948 6644056
-0.80304503 -0.70951879 2.8580971 6643802
-0.46289426 -0.70195043 2.8563447 8816000
-0.44613197 -0.70156592 2.8529117 8948099
-0.42987177 -0.70190358 2.8525023 9079943
-0.41391239 -0.70272332 2.8541079 9211272
-0.39807504 -0.70378482 2.8567202 9474190
-0.38136935 -0.70339906 2.8532887 9540496
0.1565931 -0.70153373 2.85358 9538956
-1.4755924 -0.69105572 2.856962 5329221
-1.4407579 -0.69052941 2.8510666 5723465
-1.4251572 -0.69110328 2.8516774 5723465
-1.4095455 -0.69167739 2.8522882 5920844
-1.3929311 -0.6917724 2.8508661 6117971
-1.3455491 -0.69325608 2.8516808 6315350
-1.3294247 -0.69359088 2.8512747 6052948
-1.3137677 -0.69416589 2.8518844 6249555
-1.2662781 -0.69565177 2.8526962 6381145
-1.2496921 -0.6957463 2.851275 6512218
-1.2348735 -0.69680369 2.8539128 6446938
-1.220021 -0.69786173 2.85655 6381145
-1.2029959 -0.69771552 2.8541143 6315350
-1.1876816 -0.69853324 2.855736 6183762
-1.1710956 -0.69862777 2.8543148 6381141
-1.1549315 -0.6989634 2.8539078 6315091
-0.76858723 -0.69242829 2.8509934 6775388
-0.67232913 -0.69540381 2.8525846 7104353
-0.59141058 -0.69732827 2.8515511 7696750
-0.51080406 -0.69973469 2.8525329 8158324
-0.49419782 -0.69959098 2.8501074 8355449
0.0094303228 -0.69895506 2.859292 9802646
-0.022900159 -0.68088657 2.855876 13157573
0.14066266 -0.68521404 2.855772 9210761
0.22289579 -0.68831855 2.8597229 9078921
0.14087179 -0.66807109 2.8525405 8947846
0.12497283 -0.65195644 2.8557346 8750210
0.15784119 -0.65330321 2.8579171 9276300
0.1739514 -0.65253049 2.852495 9013128
-0.021823149 -0.63050061 2.8501847 13816019
0.22369364 -0.63818753 2.8560429 8618624
0.0047057341 -0.93065321 2.8664563 12765657
0.021086091 -0.92940217 2.861021 12568278
0.037442464 -0.9297418 2.8606091 12765400
-0.09263093 -0.87946701 2.8692615 12172996
-0.19013058 -0.85887998 2.8644695 11844031
-0.23902504 -0.8419897 2.8674929 11251892
-0.71040434 -0.81261122 2.8680978 7170408
-0.77312255 -0.80875242 2.8606396 6907489
0.22143339 -0.78942466 2.8690908 0
-1.6741002 -0.75352269 2.8688362 5330247
-1.6702152 -0.7357291 2.8625014 5592648
-1.6552523 -0.73657376 2.8641324 5329221
-1.6408479 -0.73767382 2.8667815 5263428
-1.3061527 -0.73123097 2.8691843 6381143
-1.2421263 -0.73308301 2.86958 6183762
-0.72477192 -0.73004067 2.8663788 7038560
-0.70898271 -0.73087972 2.8679891 7104866
-0.69267732 -0.73121834 2.8675785 6973282
-0.67588955 -0.73105568 2.8651483 7104868
-0.66006631 -0.73189545 2.8667576 7302247
-0.64422053 -0.73273563 2.868366 7499114
-0.62767959 -0.73282349 2.866946 7696493
-0.59527028 -0.73375207 2.8671336 7631726
-0.57895344 -0.73409086 2.8667228 7829105
-0.53019339 -0.73535901 2.8664994 8486521
-0.49826413 -0.73704433 2.8697104 8750208
-1.6214767 -0.72050291 2.8610611 5394499
-1.6064796 -0.7213369 2.8626912 5197120
-1.5897689 -0.72142261 2.8612666 5328707
-1.5747437 -0.72225714 2.862896 5394499
-1.558591 -0.72259253 2.8624892 5460292
-1.5418916 -0.72267801 2.8610651 5591625
-1.5289912 -0.72451365 2.8667634 5262660
-1.5117393 -0.72434926 2.8643212 5394500
-1.4960995 -0.72493535 2.8649316 5526085
-1.4778274 -0.72426951 2.860456 5526085
-1.4647857 -0.72610801 2.8661509 5657672
-1.4491119 -0.72669482 2.8667603 5855050
-1.4308909 -0.72602803 2.8622861 5592393
-1.4172288 -0.7276181 2.8669615 5592395
-1.3985515 -0.72669953 2.8614719 5855567
-1.3863037 -0.72904414 2.8691945 5920590
-1.3700886 -0.72938085 2.8687861 5986385
-1.3538736 -0.72971755 2.8683779 6183764
-1.0960428 -0.7200312 2.8666916 6380630
-1.0801824 -0.72061616 2.8672962 6315352
-1.0476847 -0.72129095 2.8664782 6578522
-0.99964654 -0.7227996 2.8672762 6710624
-0.98303765 -0.72288889 2.8658543 6710110
-0.96746922 -0.72372341 2.86747 6512729
-0.9498539 -0.72306669 2.8630114 6775903
-0.93526906 -0.72464758 2.8676631 6710110
-0.91964948 -0.72548306 2.8692772 6907487
-0.90176505 -0.72457647 2.8638084 6775903
-0.87080103 -0.72649735 2.8680475 6973282
-0.85482168 -0.72708476 2.8686492 6710110
-0.83823544 -0.72717357 2.8672276 6710110
-0.8222447 -0.72776121 2.8678291 6644313
-0.80624264 -0.72834903 2.8684299 6841435
-0.78994846 -0.72868735 2.8680196 6644056
-0.77420455 -0.72952551 2.8696311 6709595
-0.75762957 -0.72961396 2.8682098 6775901
-0.74132985 -0.72995239 2.8677993 6710108
-0.44792235 -0.72014129 2.862205 9144966
-0.41620314 -0.7222994 2.8674285 9211272
-0.39913386 -0.72140425 2.8619804 9474701
-0.38323465 -0.72248411 2.8645911 9672080
-0.36716798 -0.72331756 2.8661942 9672082
-0.35056716 -0.72316241 2.8637688 10066840
-1.6692917 -0.71924877 2.8612609 5789257
-1.3977237 -0.71018875 2.8602335 5987155
-1.2864001 -0.71352267 2.8614461 6446938
-1.2711146 -0.71435124 2.8630688 6512731
-1.2549165 -0.71468759 2.8626611 6512731
-1.2395971 -0.71551687 2.8642831 6446938
-1.2220871 -0.7151137 2.860831 6249557
-1.2080342 -0.71668345 2.8654959 6315350
-1.1913912 -0.71677339 2.8640733 6512216
-1.1743432 -0.71661615 2.8616364 6249555
-1.1277304 -0.71886212 2.8654819 6446675
-1.1114984 -0.71919912 2.8650732 6446677
-1.0620488 -0.7197147 2.8618207 6381659
-0.78764933 -0.71058816 2.8607206 6644056
-0.77139485 -0.7109257 2.8603115 6710106
-0.7554096 -0.7115075 2.8609126 6906974
-0.73914939 -0.7118451 2.8605032 6841181
-0.72340524 -0.71267188 2.8621144 6841696
-0.67459071 -0.71368545 2.8608856 7301732
-0.62600023 -0.7149443 2.8606658 7433833
-0.49667692 -0.71887916 2.8624287 8552828
-0.46389851 -0.71930981 2.8605998 9013380
-1.0941567 -0.7027244 2.8624148 6315350
-0.90047044 -0.70749587 2.8605497 6644317
-0.88549113 -0.70880646 2.8641875 6710108
-0.36656541 -0.70639271 2.8639557 9672852
-0.0066391663 -0.68331957 2.8644977 10000027
0.17418955 -0.68940252 2.8699799 9407888
0.1905181 -0.68927598 2.8675621 9539472
0.12504005 -0.6709221 2.8669865 8881796
0.19055922 -0.67160124 2.8623269 9341325
